;ENVI Rigorous Orthorectification GCP File
-6.846977	39.017073	624.500000	727.500000
-7.275614	39.086527	584.500000	727.500000
-7.723301	39.157243	544.500000	727.500000
-8.193136	39.229459	504.500000	727.500000
-8.688754	39.303428	464.500000	727.500000
-9.214474	39.379418	424.500000	727.500000
-9.775501	39.457715	384.500000	727.500000
-10.378190	39.538622	344.500000	727.500000
-11.030432	39.622457	304.500000	727.500000
-11.742200	39.709543	264.500000	727.500000
-12.526365	39.800196	224.500000	727.500000
-13.399951	39.894683	184.500000	727.500000
-14.386161	39.993155	144.500000	727.500000
-15.517824	40.095495	104.500000	727.500000
-16.843697	40.200988	64.500000	727.500000
-18.441132	40.307552	24.500000	727.500000
10.882605	34.313693	2024.500000	750.500000
9.505684	34.777222	1984.500000	750.500000
8.347734	35.151102	1944.500000	750.500000
7.348100	35.462291	1904.500000	750.500000
6.468174	35.727430	1864.500000	750.500000
5.681713	35.957504	1824.500000	750.500000
4.970003	36.160141	1784.500000	750.500000
4.319190	36.340840	1744.500000	750.500000
3.718711	36.503691	1704.500000	750.500000
3.160316	36.651814	1664.500000	750.500000
2.637425	36.787638	1624.500000	750.500000
2.144692	36.913092	1584.500000	750.500000
1.677709	37.029729	1544.500000	750.500000
1.232788	37.138817	1504.500000	750.500000
0.806797	37.241409	1464.500000	750.500000
0.397048	37.338384	1424.500000	750.500000
0.001202	37.430486	1384.500000	750.500000
-0.382798	37.518352	1344.500000	750.500000
-0.756787	37.602531	1304.500000	750.500000
-1.122418	37.683502	1264.500000	750.500000
-1.481201	37.761684	1224.500000	750.500000
-1.834533	37.837452	1184.500000	750.500000
-2.183725	37.911140	1144.500000	750.500000
-2.530022	37.983050	1104.500000	750.500000
-2.874623	38.053458	1064.500000	750.500000
-3.218703	38.122618	1024.500000	750.500000
-3.563428	38.190767	984.500000	750.500000
-3.909972	38.258130	944.500000	750.500000
-4.259535	38.324918	904.500000	750.500000
-4.613363	38.391337	864.500000	750.500000
-4.972766	38.457585	824.500000	750.500000
-5.339139	38.523861	784.500000	750.500000
-5.713990	38.590360	744.500000	750.500000
-6.098969	38.657280	704.500000	750.500000
-6.495903	38.724823	664.500000	750.500000
-6.906839	38.793197	624.500000	750.500000
-7.334096	38.862619	584.500000	750.500000
-7.780335	38.933314	544.500000	750.500000
-8.248642	39.005524	504.500000	750.500000
-8.742639	39.079502	464.500000	750.500000
-9.266631	39.155521	424.500000	750.500000
-9.825803	39.233870	384.500000	750.500000
-10.426489	39.314857	344.500000	750.500000
-11.076551	39.398807	304.500000	750.500000
-11.785929	39.486053	264.500000	750.500000
-12.567445	39.576921	224.500000	750.500000
-13.438065	39.671699	184.500000	750.500000
-14.420910	39.770562	144.500000	750.500000
-15.548692	39.873432	104.500000	750.500000
-16.870001	39.979660	64.500000	750.500000
-18.461917	40.087269	24.500000	750.500000
10.775572	34.102340	2024.500000	773.500000
9.401499	34.564109	1984.500000	773.500000
8.246063	34.936613	1944.500000	773.500000
7.248687	35.246691	1904.500000	773.500000
6.370815	35.510909	1864.500000	773.500000
5.586241	35.740206	1824.500000	773.500000
4.876279	35.942177	1784.500000	773.500000
4.227097	36.122298	1744.500000	773.500000
3.628153	36.284641	1704.500000	773.500000
3.071207	36.432314	1664.500000	773.500000
2.549693	36.567737	1624.500000	773.500000
2.058276	36.692830	1584.500000	773.500000
1.592555	36.809140	1544.500000	773.500000
1.148850	36.917932	1504.500000	773.500000
0.724036	37.020253	1464.500000	773.500000
0.315429	37.116978	1424.500000	773.500000
-0.079302	37.208851	1384.500000	773.500000
-0.462212	37.296504	1344.500000	773.500000
-0.835130	37.380486	1304.500000	773.500000
-1.199706	37.461273	1264.500000	773.500000
-1.557446	37.539284	1224.500000	773.500000
-1.909745	37.614893	1184.500000	773.500000
-2.257908	37.688431	1144.500000	773.500000
-2.603177	37.760201	1104.500000	773.500000
-2.946749	37.830478	1064.500000	773.500000
-3.289796	37.899516	1024.500000	773.500000
-3.633479	37.967552	984.500000	773.500000
-3.978969	38.034807	944.500000	773.500000
-4.327464	38.101496	904.500000	773.500000
-4.680204	38.167823	864.500000	773.500000
-5.038495	38.233988	824.500000	773.500000
-5.403729	38.300187	784.500000	773.500000
-5.777408	38.366617	744.500000	773.500000
-6.161178	38.433476	704.500000	773.500000
-6.556858	38.500968	664.500000	773.500000
-6.966488	38.569300	624.500000	773.500000
-7.392380	38.638690	584.500000	773.500000
-7.837186	38.709366	544.500000	773.500000
-8.303981	38.781571	504.500000	773.500000
-8.796375	38.855560	464.500000	773.500000
-9.318657	38.931608	424.500000	773.500000
-9.875994	39.010010	384.500000	773.500000
-10.474699	39.091078	344.500000	773.500000
-11.122606	39.175144	304.500000	773.500000
-11.829618	39.262550	264.500000	773.500000
-12.608515	39.353634	224.500000	773.500000
-13.476201	39.448702	184.500000	773.500000
-14.455716	39.547956	144.500000	773.500000
-15.579661	39.651357	104.500000	773.500000
-16.896453	39.758317	64.500000	773.500000
-18.482909	39.866969	24.500000	773.500000
10.669208	33.890857	2024.500000	796.500000
9.297960	34.350878	1984.500000	796.500000
8.145018	34.722016	1944.500000	796.500000
7.149881	35.030990	1904.500000	796.500000
6.274043	35.294293	1864.500000	796.500000
5.491340	35.522820	1824.500000	796.500000
4.783110	35.724129	1784.500000	796.500000
4.135545	35.903676	1744.500000	796.500000
3.538119	36.065516	1704.500000	796.500000
2.982610	36.212744	1664.500000	796.500000
2.462460	36.347769	1624.500000	796.500000
1.972345	36.472504	1584.500000	796.500000
1.507875	36.588490	1544.500000	796.500000
1.065373	36.696988	1504.500000	796.500000
0.641724	36.799039	1464.500000	796.500000
0.234249	36.895518	1424.500000	796.500000
-0.159379	36.987163	1384.500000	796.500000
-0.541209	37.074606	1344.500000	796.500000
-0.913068	37.158393	1304.500000	796.500000
-1.276600	37.238998	1264.500000	796.500000
-1.633308	37.316841	1224.500000	796.500000
-1.984583	37.392291	1184.500000	796.500000
-2.331727	37.465682	1144.500000	796.500000
-2.675980	37.537315	1104.500000	796.500000
-3.018534	37.607462	1064.500000	796.500000
-3.360558	37.676379	1024.500000	796.500000
-3.703210	37.744302	984.500000	796.500000
-4.047658	37.811453	944.500000	796.500000
-4.395095	37.878044	904.500000	796.500000
-4.746758	37.944280	864.500000	796.500000
-5.103950	38.010362	824.500000	796.500000
-5.468057	38.076486	784.500000	796.500000
-5.840577	38.142848	744.500000	796.500000
-6.223149	38.209648	704.500000	796.500000
-6.617588	38.277089	664.500000	796.500000
-7.025926	38.345381	624.500000	796.500000
-7.450469	38.414741	584.500000	796.500000
-7.893857	38.485399	544.500000	796.500000
-8.359157	38.557599	504.500000	796.500000
-8.849964	38.631600	464.500000	796.500000
-9.370555	38.707680	424.500000	796.500000
-9.926078	38.786136	384.500000	796.500000
-10.522823	38.867286	344.500000	796.500000
-11.168597	38.951468	304.500000	796.500000
-11.873269	39.039034	264.500000	796.500000
-12.649575	39.130335	224.500000	796.500000
-13.514359	39.225694	184.500000	796.500000
-14.490581	39.325338	144.500000	796.500000
-15.610728	39.429268	104.500000	796.500000
-16.923053	39.536960	64.500000	796.500000
-18.504106	39.646651	24.500000	796.500000
10.563506	33.679246	2024.500000	819.500000
9.195060	34.137529	1984.500000	819.500000
8.044591	34.507310	1944.500000	819.500000
7.051673	34.815188	1904.500000	819.500000
6.177853	35.077584	1864.500000	819.500000
5.397002	35.305345	1824.500000	819.500000
4.690489	35.505999	1784.500000	819.500000
4.044526	35.684976	1744.500000	819.500000
3.448605	35.846317	1704.500000	819.500000
2.894518	35.993102	1664.500000	819.500000
2.375719	36.127733	1624.500000	819.500000
1.886894	36.252114	1584.500000	819.500000
1.423662	36.367779	1544.500000	819.500000
0.982352	36.475985	1504.500000	819.500000
0.559857	36.577771	1464.500000	819.500000
0.153502	36.674005	1424.500000	819.500000
-0.239034	36.765424	1384.500000	819.500000
-0.619796	36.852659	1344.500000	819.500000
-0.990606	36.936253	1304.500000	819.500000
-1.353104	37.016679	1264.500000	819.500000
-1.708791	37.094354	1224.500000	819.500000
-2.059053	37.169649	1184.500000	819.500000
-2.405189	37.242894	1144.500000	819.500000
-2.748435	37.314389	1104.500000	819.500000
-3.089982	37.384410	1064.500000	819.500000
-3.430993	37.453208	1024.500000	819.500000
-3.772625	37.521019	984.500000	819.500000
-4.116042	37.588066	944.500000	819.500000
-4.462432	37.654561	904.500000	819.500000
-4.813031	37.720708	864.500000	819.500000
-5.169134	37.786708	824.500000	819.500000
-5.532126	37.852758	784.500000	819.500000
-5.903499	37.919054	744.500000	819.500000
-6.284887	37.985796	704.500000	819.500000
-6.678098	38.053188	664.500000	819.500000
-7.085158	38.121440	624.500000	819.500000
-7.508365	38.190771	584.500000	819.500000
-7.950352	38.261413	544.500000	819.500000
-8.414172	38.333610	504.500000	819.500000
-8.903410	38.407624	464.500000	819.500000
-9.422328	38.483736	424.500000	819.500000
-9.976056	38.562247	384.500000	819.500000
-10.570862	38.643479	344.500000	819.500000
-11.214526	38.727779	304.500000	819.500000
-11.916884	38.815506	264.500000	819.500000
-12.690626	38.907024	224.500000	819.500000
-13.552539	39.002673	184.500000	819.500000
-14.525504	39.102708	144.500000	819.500000
-15.641895	39.207167	104.500000	819.500000
-16.949799	39.315588	64.500000	819.500000
-18.525507	39.426314	24.500000	819.500000
10.458458	33.467507	2024.500000	842.500000
9.092792	33.924065	1984.500000	842.500000
7.944775	34.292498	1944.500000	842.500000
6.954058	34.599287	1904.500000	842.500000
6.082238	34.860783	1864.500000	842.500000
5.303223	35.087784	1824.500000	842.500000
4.598410	35.287787	1784.500000	842.500000
3.954034	35.466199	1744.500000	842.500000
3.359604	35.627045	1704.500000	842.500000
2.806925	35.773392	1664.500000	842.500000
2.289464	35.907631	1624.500000	842.500000
1.801917	36.031660	1584.500000	842.500000
1.339910	36.147008	1544.500000	842.500000
0.899781	36.254925	1504.500000	842.500000
0.478428	36.356447	1464.500000	842.500000
0.073182	36.452439	1424.500000	842.500000
-0.318273	36.543635	1384.500000	842.500000
-0.697978	36.630664	1344.500000	842.500000
-1.067749	36.714066	1304.500000	842.500000
-1.429224	36.794315	1264.500000	842.500000
-1.783900	36.871825	1224.500000	842.500000
-2.133159	36.946965	1184.500000	842.500000
-2.478298	37.020066	1144.500000	842.500000
-2.820548	37.091427	1104.500000	842.500000
-3.161098	37.161321	1064.500000	842.500000
-3.501107	37.230001	1024.500000	842.500000
-3.841730	37.297703	984.500000	842.500000
-4.184125	37.364647	944.500000	842.500000
-4.529480	37.431048	904.500000	842.500000
-4.879025	37.497108	864.500000	842.500000
-5.234052	37.563027	824.500000	842.500000
-5.595940	37.629004	784.500000	842.500000
-5.966178	37.695235	744.500000	842.500000
-6.346394	37.761921	704.500000	842.500000
-6.738391	37.829265	664.500000	842.500000
-7.144187	37.897478	624.500000	842.500000
-7.566073	37.966782	584.500000	842.500000
-8.006672	38.037408	544.500000	842.500000
-8.469028	38.109603	504.500000	842.500000
-8.956715	38.183631	464.500000	842.500000
-9.473977	38.259776	424.500000	842.500000
-10.025929	38.338343	384.500000	842.500000
-10.618817	38.419659	344.500000	842.500000
-11.260395	38.504077	304.500000	842.500000
-11.960464	38.591965	264.500000	842.500000
-12.731670	38.683701	224.500000	842.500000
-13.590743	38.779641	184.500000	842.500000
-14.560485	38.880065	144.500000	842.500000
-15.673161	38.985052	104.500000	842.500000
-16.976691	39.094201	64.500000	842.500000
-18.547110	39.205960	24.500000	842.500000
10.354058	33.255644	2024.500000	865.500000
8.991149	33.710487	1984.500000	865.500000
7.845565	34.077580	1944.500000	865.500000
6.857029	34.383289	1904.500000	865.500000
5.987190	34.643890	1864.500000	865.500000
5.209995	34.870136	1824.500000	865.500000
4.506867	35.069493	1784.500000	865.500000
3.864063	35.247346	1744.500000	865.500000
3.271110	35.407700	1704.500000	865.500000
2.719826	35.553612	1664.500000	865.500000
2.203690	35.687464	1624.500000	865.500000
1.717408	35.811145	1584.500000	865.500000
1.256614	35.926178	1544.500000	865.500000
0.817655	36.033809	1504.500000	865.500000
0.397431	36.135068	1464.500000	865.500000
-0.006716	36.230820	1424.500000	865.500000
-0.397101	36.321796	1384.500000	865.500000
-0.775759	36.408621	1344.500000	865.500000
-1.144502	36.491834	1304.500000	865.500000
-1.504965	36.571907	1264.500000	865.500000
-1.858640	36.649253	1224.500000	865.500000
-2.206907	36.724241	1184.500000	865.500000
-2.551058	36.797199	1144.500000	865.500000
-2.892323	36.868427	1104.500000	865.500000
-3.231886	36.938197	1064.500000	865.500000
-3.570904	37.006761	1024.500000	865.500000
-3.910527	37.074354	984.500000	865.500000
-4.251913	37.141198	944.500000	865.500000
-4.596243	37.207504	904.500000	865.500000
-4.944745	37.273478	864.500000	865.500000
-5.298707	37.339319	824.500000	865.500000
-5.659504	37.405224	784.500000	865.500000
-6.028619	37.471392	744.500000	865.500000
-6.407675	37.538022	704.500000	865.500000
-6.798470	37.605319	664.500000	865.500000
-7.203016	37.673495	624.500000	865.500000
-7.623594	37.742772	584.500000	865.500000
-8.062821	37.813384	544.500000	865.500000
-8.523729	37.885578	504.500000	865.500000
-9.009880	37.959622	464.500000	865.500000
-9.525505	38.035801	424.500000	865.500000
-10.075701	38.114424	384.500000	865.500000
-10.666692	38.195825	344.500000	865.500000
-11.306206	38.280362	304.500000	865.500000
-12.004010	38.368413	264.500000	865.500000
-12.772707	38.460366	224.500000	865.500000
-13.628971	38.556597	184.500000	865.500000
-14.595525	38.657411	144.500000	865.500000
-15.704524	38.762925	104.500000	865.500000
-17.003728	38.872799	64.500000	865.500000
-18.568914	38.985588	24.500000	865.500000
10.250300	33.043656	2024.500000	888.500000
8.890126	33.496795	1984.500000	888.500000
7.746952	33.862558	1944.500000	888.500000
6.760578	34.167193	1904.500000	888.500000
5.892704	34.426906	1864.500000	888.500000
5.117312	34.652405	1824.500000	888.500000
4.415853	34.851120	1784.500000	888.500000
3.774607	35.028417	1744.500000	888.500000
3.183116	35.188284	1704.500000	888.500000
2.633214	35.333765	1664.500000	888.500000
2.118390	35.467232	1624.500000	888.500000
1.633361	35.590567	1584.500000	888.500000
1.173769	35.705288	1544.500000	888.500000
0.735966	35.812635	1504.500000	888.500000
0.316863	35.913636	1464.500000	888.500000
-0.086198	36.009151	1424.500000	888.500000
-0.475523	36.099908	1384.500000	888.500000
-0.853145	36.186530	1344.500000	888.500000
-1.220871	36.269556	1304.500000	888.500000
-1.580332	36.349455	1264.500000	888.500000
-1.933016	36.426640	1224.500000	888.500000
-2.280301	36.501476	1184.500000	888.500000
-2.623475	36.574294	1144.500000	888.500000
-2.963764	36.645390	1104.500000	888.500000
-3.302350	36.715037	1064.500000	888.500000
-3.640388	36.783486	1024.500000	888.500000
-3.979023	36.850972	984.500000	888.500000
-4.319409	36.917717	944.500000	888.500000
-4.662725	36.983931	904.500000	888.500000
-5.010195	37.049820	864.500000	888.500000
-5.363103	37.115584	824.500000	888.500000
-5.722819	37.181419	784.500000	888.500000
-6.090823	37.247524	744.500000	888.500000
-6.468733	37.314100	704.500000	888.500000
-6.858339	37.381351	664.500000	888.500000
-7.261647	37.449492	624.500000	888.500000
-7.680933	37.518744	584.500000	888.500000
-8.118801	37.589342	544.500000	888.500000
-8.578277	37.661536	504.500000	888.500000
-9.062909	37.735596	464.500000	888.500000
-9.576915	37.811810	424.500000	888.500000
-10.125372	37.890491	384.500000	888.500000
-10.714487	37.971978	344.500000	888.500000
-11.351959	38.056634	304.500000	888.500000
-12.047522	38.144848	264.500000	888.500000
-12.813738	38.237019	224.500000	888.500000
-13.667223	38.333542	184.500000	888.500000
-14.630624	38.434745	144.500000	888.500000
-15.735985	38.540785	104.500000	888.500000
-17.030909	38.651383	64.500000	888.500000
-18.590917	38.765198	24.500000	888.500000
10.147177	32.831545	2024.500000	911.500000
8.789715	33.282991	1984.500000	911.500000
7.648932	33.647433	1944.500000	911.500000
6.664701	33.951002	1904.500000	911.500000
5.798774	34.209834	1864.500000	911.500000
5.025168	34.434589	1824.500000	911.500000
4.325363	34.632669	1784.500000	911.500000
3.685659	34.809414	1744.500000	911.500000
3.095617	34.968797	1704.500000	911.500000
2.547083	35.113850	1664.500000	911.500000
2.033559	35.246936	1624.500000	911.500000
1.549771	35.369929	1584.500000	911.500000
1.091368	35.484341	1544.500000	911.500000
0.654711	35.591407	1504.500000	911.500000
0.236716	35.692151	1464.500000	911.500000
-0.165269	35.787430	1424.500000	911.500000
-0.553545	35.877970	1384.500000	911.500000
-0.930141	35.964393	1344.500000	911.500000
-1.296860	36.047234	1304.500000	911.500000
-1.655329	36.126960	1264.500000	911.500000
-2.007033	36.203985	1224.500000	911.500000
-2.353345	36.278672	1184.500000	911.500000
-2.695552	36.351350	1144.500000	911.500000
-3.034877	36.422317	1104.500000	911.500000
-3.372496	36.491842	1064.500000	911.500000
-3.709563	36.560178	1024.500000	911.500000
-4.047220	36.627559	984.500000	911.500000
-4.386617	36.694205	944.500000	911.500000
-4.728930	36.760329	904.500000	911.500000
-5.075379	36.826134	864.500000	911.500000
-5.427244	36.891821	824.500000	911.500000
-5.785892	36.957588	784.500000	911.500000
-6.152796	37.023632	744.500000	911.500000
-6.529571	37.090155	704.500000	911.500000
-6.918000	37.157362	664.500000	911.500000
-7.320085	37.225468	624.500000	911.500000
-7.738091	37.294695	584.500000	911.500000
-8.174616	37.365281	544.500000	911.500000
-8.632675	37.437477	504.500000	911.500000
-9.115804	37.511554	464.500000	911.500000
-9.628207	37.587804	424.500000	911.500000
-10.174946	37.666544	384.500000	911.500000
-10.762204	37.748117	344.500000	911.500000
-11.397656	37.832894	304.500000	911.500000
-12.091003	37.921270	264.500000	911.500000
-12.854765	38.013661	224.500000	911.500000
-13.705500	38.110474	184.500000	911.500000
-14.665780	38.212067	144.500000	911.500000
-15.767544	38.318633	104.500000	911.500000
-17.058232	38.429953	64.500000	911.500000
-18.613117	38.544791	24.500000	911.500000
10.044682	32.619314	2024.500000	934.500000
8.689910	33.069077	1984.500000	934.500000
7.551497	33.432206	1944.500000	934.500000
6.569391	33.734717	1904.500000	934.500000
5.705392	33.992673	1864.500000	934.500000
4.933556	34.216690	1824.500000	934.500000
4.235390	34.414139	1784.500000	934.500000
3.597214	34.590336	1744.500000	934.500000
3.008607	34.749240	1704.500000	934.500000
2.461428	34.893869	1664.500000	934.500000
1.949191	35.026577	1624.500000	934.500000
1.466631	35.149230	1584.500000	934.500000
1.009406	35.263335	1544.500000	934.500000
0.573884	35.370123	1504.500000	934.500000
0.156986	35.470613	1464.500000	934.500000
-0.243934	35.565659	1424.500000	934.500000
-0.631172	35.655985	1384.500000	934.500000
-1.006752	35.742209	1344.500000	934.500000
-1.372474	35.824867	1304.500000	934.500000
-1.729961	35.904423	1264.500000	934.500000
-2.080695	35.981289	1224.500000	934.500000
-2.426045	36.055829	1184.500000	934.500000
-2.767295	36.128369	1144.500000	934.500000
-3.105664	36.199207	1104.500000	934.500000
-3.442328	36.268613	1064.500000	934.500000
-3.778434	36.336837	1024.500000	934.500000
-4.115122	36.404113	984.500000	934.500000
-4.453541	36.470663	944.500000	934.500000
-4.794861	36.536698	904.500000	934.500000
-5.140300	36.602421	864.500000	934.500000
-5.491133	36.668033	824.500000	934.500000
-5.848723	36.733732	784.500000	934.500000
-6.214540	36.799716	744.500000	934.500000
-6.590192	36.866187	704.500000	934.500000
-6.977458	36.933351	664.500000	934.500000
-7.378331	37.001423	624.500000	934.500000
-7.795071	37.070627	584.500000	934.500000
-8.230268	37.141202	544.500000	934.500000
-8.686925	37.213400	504.500000	934.500000
-9.168568	37.287496	464.500000	934.500000
-9.679386	37.363783	424.500000	934.500000
-10.224424	37.442583	384.500000	934.500000
-10.809845	37.524243	344.500000	934.500000
-11.443298	37.609140	304.500000	934.500000
-12.134453	37.697681	264.500000	934.500000
-12.895787	37.790291	224.500000	934.500000
-13.743802	37.887396	184.500000	934.500000
-14.700996	37.989377	144.500000	934.500000
-15.799200	38.096467	104.500000	934.500000
-17.085698	38.208508	64.500000	934.500000
-18.635514	38.324367	24.500000	934.500000
9.942808	32.406962	2024.500000	957.500000
8.590704	32.855053	1984.500000	957.500000
7.454641	33.216879	1944.500000	957.500000
6.474641	33.518338	1904.500000	957.500000
5.612554	33.775425	1864.500000	957.500000
4.842471	33.998710	1824.500000	957.500000
4.145928	34.195532	1784.500000	957.500000
3.509266	34.371186	1744.500000	957.500000
2.922080	34.529614	1704.500000	957.500000
2.376243	34.673823	1664.500000	957.500000
1.865281	34.806156	1624.500000	957.500000
1.383937	34.928472	1584.500000	957.500000
0.927878	35.042273	1544.500000	957.500000
0.493479	35.148785	1504.500000	957.500000
0.077667	35.249023	1464.500000	957.500000
-0.322198	35.343838	1424.500000	957.500000
-0.708408	35.433951	1384.500000	957.500000
-1.082983	35.519980	1344.500000	957.500000
-1.447718	35.602456	1304.500000	957.500000
-1.804234	35.681844	1264.500000	957.500000
-2.154007	35.758553	1224.500000	957.500000
-2.498405	35.832947	1184.500000	957.500000
-2.838708	35.905351	1144.500000	957.500000
-3.176132	35.976062	1104.500000	957.500000
-3.511849	36.045349	1064.500000	957.500000
-3.847004	36.113463	1024.500000	957.500000
-4.182735	36.180637	984.500000	957.500000
-4.520185	36.247091	944.500000	957.500000
-4.860523	36.313037	904.500000	957.500000
-5.204962	36.378680	864.500000	957.500000
-5.554774	36.444218	824.500000	957.500000
-5.911318	36.509850	784.500000	957.500000
-6.276059	36.575776	744.500000	957.500000
-6.650600	36.642196	704.500000	957.500000
-7.036714	36.709318	664.500000	957.500000
-7.436390	36.777358	624.500000	957.500000
-7.851877	36.846540	584.500000	957.500000
-8.285759	36.917105	544.500000	957.500000
-8.741029	36.989307	504.500000	957.500000
-9.221201	37.063422	464.500000	957.500000
-9.730451	37.139747	424.500000	957.500000
-10.273807	37.218607	384.500000	957.500000
-10.857411	37.300355	344.500000	957.500000
-11.488888	37.385374	304.500000	957.500000
-12.177874	37.474080	264.500000	957.500000
-12.936805	37.566909	224.500000	957.500000
-13.782130	37.664305	184.500000	957.500000
-14.736271	37.766675	144.500000	957.500000
-15.830953	37.874289	104.500000	957.500000
-17.113305	37.987049	64.500000	957.500000
-18.658105	38.103925	24.500000	957.500000
9.841551	32.194492	2024.500000	980.500000
8.492092	32.640922	1984.500000	980.500000
7.358359	33.001452	1944.500000	980.500000
6.380445	33.301866	1904.500000	980.500000
5.520252	33.558091	1864.500000	980.500000
4.751907	33.780648	1824.500000	980.500000
4.056972	33.976848	1784.500000	980.500000
3.421809	34.151964	1744.500000	980.500000
2.836030	34.309920	1704.500000	980.500000
2.291523	34.453711	1664.500000	980.500000
1.781822	34.585672	1624.500000	980.500000
1.301683	34.707655	1584.500000	980.500000
0.846779	34.821155	1544.500000	980.500000
0.413492	34.927393	1504.500000	980.500000
-0.001245	35.027381	1464.500000	980.500000
-0.400066	35.121968	1424.500000	980.500000
-0.785259	35.211871	1384.500000	980.500000
-1.158839	35.297705	1344.500000	980.500000
-1.522598	35.380001	1304.500000	980.500000
-1.878151	35.459222	1264.500000	980.500000
-2.226974	35.535777	1224.500000	980.500000
-2.570430	35.610026	1184.500000	980.500000
-2.909795	35.682296	1144.500000	980.500000
-3.246284	35.752882	1104.500000	980.500000
-3.581064	35.822052	1064.500000	980.500000
-3.915279	35.890057	1024.500000	980.500000
-4.250061	35.957129	984.500000	980.500000
-4.586553	36.023489	944.500000	980.500000
-4.925919	36.089349	904.500000	980.500000
-5.269369	36.154911	864.500000	980.500000
-5.618171	36.220377	824.500000	980.500000
-5.973680	36.285944	784.500000	980.500000
-6.337356	36.351812	744.500000	980.500000
-6.710798	36.418183	704.500000	980.500000
-7.095773	36.485264	664.500000	980.500000
-7.494263	36.553272	624.500000	980.500000
-7.908512	36.622434	584.500000	980.500000
-8.341093	36.692989	544.500000	980.500000
-8.794991	36.765196	504.500000	980.500000
-9.273708	36.839331	464.500000	980.500000
-9.781407	36.915696	424.500000	980.500000
-10.323098	36.994617	384.500000	980.500000
-10.904905	37.076454	344.500000	980.500000
-11.534426	37.161596	304.500000	980.500000
-12.221267	37.250466	264.500000	980.500000
-12.977821	37.343515	224.500000	980.500000
-13.820485	37.441203	184.500000	980.500000
-14.771604	37.543962	144.500000	980.500000
-15.862803	37.652099	104.500000	980.500000
-17.141053	37.765576	64.500000	980.500000
-18.680889	37.883466	24.500000	980.500000
9.740902	31.981905	2024.500000	1003.500000
8.394067	32.426684	1984.500000	1003.500000
7.262643	32.785927	1944.500000	1003.500000
6.286797	33.085304	1904.500000	1003.500000
5.428481	33.340671	1864.500000	1003.500000
4.661858	33.562507	1824.500000	1003.500000
3.968515	33.758090	1784.500000	1003.500000
3.334838	33.932671	1744.500000	1003.500000
2.750452	34.090159	1704.500000	1003.500000
2.207261	34.233536	1664.500000	1003.500000
1.698810	34.365128	1624.500000	1003.500000
1.219863	34.486780	1584.500000	1003.500000
0.766103	34.599981	1544.500000	1003.500000
0.333917	34.705948	1504.500000	1003.500000
-0.079756	34.805689	1464.500000	1003.500000
-0.477543	34.900049	1424.500000	1003.500000
-0.861730	34.989744	1384.500000	1003.500000
-1.234325	35.075386	1344.500000	1003.500000
-1.597117	35.157504	1304.500000	1003.500000
-1.951718	35.236560	1264.500000	1003.500000
-2.299601	35.312961	1224.500000	1003.500000
-2.642124	35.387068	1184.500000	1003.500000
-2.980561	35.459205	1144.500000	1003.500000
-3.316124	35.529666	1104.500000	1003.500000
-3.649977	35.598721	1064.500000	1003.500000
-3.983261	35.666618	1024.500000	1003.500000
-4.317106	35.733590	984.500000	1003.500000
-4.652649	35.799858	944.500000	1003.500000
-4.991054	35.865632	904.500000	1003.500000
-5.333524	35.931116	864.500000	1003.500000
-5.681327	35.996511	824.500000	1003.500000
-6.035812	36.062014	784.500000	1003.500000
-6.398435	36.127825	744.500000	1003.500000
-6.770789	36.194148	704.500000	1003.500000
-7.154637	36.261189	664.500000	1003.500000
-7.551954	36.329167	624.500000	1003.500000
-7.964977	36.398309	584.500000	1003.500000
-8.396272	36.468856	544.500000	1003.500000
-8.848812	36.541069	504.500000	1003.500000
-9.326090	36.615225	464.500000	1003.500000
-9.832254	36.691630	424.500000	1003.500000
-10.372299	36.770613	384.500000	1003.500000
-10.952328	36.852539	344.500000	1003.500000
-11.579915	36.937805	304.500000	1003.500000
-12.264633	37.026841	264.500000	1003.500000
-13.018836	37.120110	224.500000	1003.500000
-13.858866	37.218090	184.500000	1003.500000
-14.806997	37.321237	144.500000	1003.500000
-15.894748	37.429896	104.500000	1003.500000
-17.168940	37.544089	64.500000	1003.500000
-18.703864	37.662990	24.500000	1003.500000
9.640857	31.769202	2024.500000	1026.500000
8.296623	32.212340	1984.500000	1026.500000
7.167487	32.570304	1944.500000	1026.500000
6.193691	32.868651	1904.500000	1026.500000
5.337235	33.123167	1864.500000	1026.500000
4.572317	33.344287	1824.500000	1026.500000
3.880552	33.539257	1784.500000	1026.500000
3.248346	33.713307	1744.500000	1026.500000
2.665340	33.870330	1704.500000	1026.500000
2.123453	34.013297	1664.500000	1026.500000
1.616239	34.144523	1624.500000	1026.500000
1.138473	34.265848	1584.500000	1026.500000
0.685844	34.378752	1544.500000	1026.500000
0.254748	34.484450	1504.500000	1026.500000
-0.157870	34.583946	1464.500000	1026.500000
-0.554635	34.678082	1424.500000	1026.500000
-0.937824	34.767570	1384.500000	1026.500000
-1.309444	34.853022	1344.500000	1026.500000
-1.671280	34.934964	1304.500000	1026.500000
-2.024939	35.013857	1264.500000	1026.500000
-2.371890	35.090106	1224.500000	1026.500000
-2.713490	35.164072	1184.500000	1026.500000
-3.051010	35.236077	1144.500000	1026.500000
-3.385656	35.306416	1104.500000	1026.500000
-3.718593	35.375357	1064.500000	1026.500000
-4.050955	35.443147	1024.500000	1026.500000
-4.383872	35.510021	984.500000	1026.500000
-4.718477	35.576197	944.500000	1026.500000
-5.055930	35.641887	904.500000	1026.500000
-5.397432	35.707294	864.500000	1026.500000
-5.744246	35.772619	824.500000	1026.500000
-6.097717	35.838059	784.500000	1026.500000
-6.459298	35.903815	744.500000	1026.500000
-6.830576	35.970091	704.500000	1026.500000
-7.213309	36.037094	664.500000	1026.500000
-7.609465	36.105042	624.500000	1026.500000
-8.021276	36.174165	584.500000	1026.500000
-8.451298	36.244706	544.500000	1026.500000
-8.902495	36.316925	504.500000	1026.500000
-9.378349	36.391103	464.500000	1026.500000
-9.882995	36.467549	424.500000	1026.500000
-10.421411	36.546596	384.500000	1026.500000
-10.999681	36.628612	344.500000	1026.500000
-11.625354	36.714001	304.500000	1026.500000
-12.307972	36.803203	264.500000	1026.500000
-13.059850	36.896693	224.500000	1026.500000
-13.897275	36.994965	184.500000	1026.500000
-14.842449	37.098500	144.500000	1026.500000
-15.926790	37.207680	104.500000	1026.500000
-17.196966	37.322588	64.500000	1026.500000
-18.727030	37.442498	24.500000	1026.500000
9.541410	31.556384	2024.500000	1049.500000
8.199754	31.997892	1984.500000	1049.500000
7.072887	32.354586	1944.500000	1049.500000
6.101122	32.651909	1904.500000	1049.500000
5.246508	32.905580	1864.500000	1049.500000
4.483280	33.125988	1824.500000	1049.500000
3.793078	33.320350	1784.500000	1049.500000
3.162328	33.493874	1744.500000	1049.500000
2.580690	33.650436	1704.500000	1049.500000
2.040093	33.792996	1664.500000	1049.500000
1.534105	33.923859	1624.500000	1049.500000
1.057507	34.044858	1584.500000	1049.500000
0.605999	34.157469	1544.500000	1049.500000
0.175982	34.262901	1504.500000	1049.500000
-0.235593	34.362154	1464.500000	1049.500000
-0.631345	34.456067	1424.500000	1049.500000
-1.013548	34.545351	1384.500000	1049.500000
-1.384203	34.630614	1344.500000	1049.500000
-1.745092	34.712382	1304.500000	1049.500000
-2.097819	34.791113	1264.500000	1049.500000
-2.443848	34.867212	1224.500000	1049.500000
-2.784535	34.941038	1184.500000	1049.500000
-3.121146	35.012914	1144.500000	1049.500000
-3.454885	35.083132	1104.500000	1049.500000
-3.786914	35.151960	1064.500000	1049.500000
-4.118365	35.219646	1024.500000	1049.500000
-4.450363	35.286422	984.500000	1049.500000
-4.784040	35.352508	944.500000	1049.500000
-5.120551	35.418115	904.500000	1049.500000
-5.461095	35.483446	864.500000	1049.500000
-5.806931	35.548701	824.500000	1049.500000
-6.159399	35.614080	784.500000	1049.500000
-6.519948	35.679782	744.500000	1049.500000
-6.890162	35.746012	704.500000	1049.500000
-7.271792	35.812977	664.500000	1049.500000
-7.666800	35.880898	624.500000	1049.500000
-8.077411	35.950003	584.500000	1049.500000
-8.506173	36.020538	544.500000	1049.500000
-8.956043	36.092764	504.500000	1049.500000
-9.430488	36.166966	464.500000	1049.500000
-9.933632	36.243453	424.500000	1049.500000
-10.470436	36.322564	384.500000	1049.500000
-11.046966	36.404671	344.500000	1049.500000
-11.670746	36.490185	304.500000	1049.500000
-12.351287	36.579554	264.500000	1049.500000
-13.100863	36.673265	224.500000	1049.500000
-13.935711	36.771829	184.500000	1049.500000
-14.877960	36.875752	144.500000	1049.500000
-15.958927	36.985453	104.500000	1049.500000
-17.225130	37.101073	64.500000	1049.500000
-18.750385	37.221988	24.500000	1049.500000
9.442553	31.343454	2024.500000	1072.500000
8.103454	31.783340	1984.500000	1072.500000
6.978836	32.138772	1944.500000	1072.500000
6.009083	32.435078	1904.500000	1072.500000
5.156295	32.687911	1864.500000	1072.500000
4.394740	32.907613	1824.500000	1072.500000
3.706086	33.101371	1784.500000	1072.500000
3.076779	33.274372	1744.500000	1072.500000
2.496494	33.430477	1704.500000	1072.500000
1.957175	33.572632	1664.500000	1072.500000
1.452400	33.703136	1624.500000	1072.500000
0.976961	33.823812	1584.500000	1072.500000
0.526562	33.936132	1544.500000	1072.500000
0.097613	34.041300	1504.500000	1072.500000
-0.312930	34.140312	1464.500000	1072.500000
-0.707679	34.234005	1424.500000	1072.500000
-1.088905	34.323087	1384.500000	1072.500000
-1.458606	34.408163	1344.500000	1072.500000
-1.818557	34.489759	1304.500000	1072.500000
-2.170361	34.568330	1264.500000	1072.500000
-2.515479	34.644281	1224.500000	1072.500000
-2.855261	34.717969	1184.500000	1072.500000
-3.190973	34.789716	1144.500000	1072.500000
-3.523815	34.859814	1104.500000	1072.500000
-3.854946	34.928530	1064.500000	1072.500000
-4.185495	34.996113	1024.500000	1072.500000
-4.516584	35.062793	984.500000	1072.500000
-4.849342	35.128790	944.500000	1072.500000
-5.184921	35.194315	904.500000	1072.500000
-5.524517	35.259571	864.500000	1072.500000
-5.869385	35.324759	824.500000	1072.500000
-6.220861	35.390077	784.500000	1072.500000
-6.580390	35.455727	744.500000	1072.500000
-6.949550	35.521911	704.500000	1072.500000
-7.330089	35.588840	664.500000	1072.500000
-7.723962	35.656734	624.500000	1072.500000
-8.133386	35.725822	584.500000	1072.500000
-8.560902	35.796352	544.500000	1072.500000
-9.009457	35.868587	504.500000	1072.500000
-9.482508	35.942813	464.500000	1072.500000
-9.984166	36.019343	424.500000	1072.500000
-10.519377	36.098519	384.500000	1072.500000
-11.094185	36.180718	344.500000	1072.500000
-11.716092	36.266357	304.500000	1072.500000
-12.394578	36.355894	264.500000	1072.500000
-13.141878	36.449826	224.500000	1072.500000
-13.974176	36.548682	184.500000	1072.500000
-14.913531	36.652992	144.500000	1072.500000
-15.991159	36.763213	104.500000	1072.500000
-17.253431	36.879544	64.500000	1072.500000
-18.773928	37.001462	24.500000	1072.500000
9.344282	31.130411	2024.500000	1095.500000
8.007717	31.568687	1984.500000	1095.500000
6.885328	31.922864	1944.500000	1095.500000
5.917569	32.218161	1904.500000	1095.500000
5.066590	32.470160	1864.500000	1095.500000
4.306693	32.689161	1824.500000	1095.500000
3.619572	32.882319	1784.500000	1095.500000
2.991693	33.054802	1744.500000	1095.500000
2.412749	33.210453	1704.500000	1095.500000
1.874696	33.352207	1664.500000	1095.500000
1.371122	33.482354	1624.500000	1095.500000
0.896828	33.602711	1584.500000	1095.500000
0.447528	33.714742	1544.500000	1095.500000
0.019636	33.819648	1504.500000	1095.500000
-0.389884	33.918422	1464.500000	1095.500000
-0.783641	34.011897	1424.500000	1095.500000
-1.163901	34.100778	1384.500000	1095.500000
-1.532656	34.185669	1344.500000	1095.500000
-1.891680	34.267094	1304.500000	1095.500000
-2.242570	34.345507	1264.500000	1095.500000
-2.586785	34.421311	1224.500000	1095.500000
-2.925673	34.494862	1184.500000	1095.500000
-3.260495	34.566482	1144.500000	1095.500000
-3.592450	34.636462	1104.500000	1095.500000
-3.922691	34.705068	1064.500000	1095.500000
-4.252348	34.772549	1024.500000	1095.500000
-4.582538	34.839134	984.500000	1095.500000
-4.914387	34.905044	944.500000	1095.500000
-5.249044	34.970488	904.500000	1095.500000
-5.587702	35.035671	864.500000	1095.500000
-5.931611	35.100792	824.500000	1095.500000
-6.282106	35.166051	784.500000	1095.500000
-6.640626	35.231649	744.500000	1095.500000
-7.008744	35.297789	704.500000	1095.500000
-7.388202	35.364683	664.500000	1095.500000
-7.780952	35.432550	624.500000	1095.500000
-8.189201	35.501623	584.500000	1095.500000
-8.615485	35.572149	544.500000	1095.500000
-9.062740	35.644393	504.500000	1095.500000
-9.534413	35.718645	464.500000	1095.500000
-10.034600	35.795218	424.500000	1095.500000
-10.568234	35.874460	384.500000	1095.500000
-11.141339	35.956751	344.500000	1095.500000
-11.761393	36.042517	304.500000	1095.500000
-12.437846	36.132221	264.500000	1095.500000
-13.182894	36.226375	224.500000	1095.500000
-14.012670	36.325523	184.500000	1095.500000
-14.949162	36.430221	144.500000	1095.500000
-16.023487	36.540960	104.500000	1095.500000
-17.281869	36.658001	64.500000	1095.500000
-18.797657	36.780920	24.500000	1095.500000
9.246590	30.917258	2024.500000	1118.500000
7.912538	31.353933	1984.500000	1118.500000
6.792357	31.706864	1944.500000	1118.500000
5.826575	32.001158	1904.500000	1118.500000
4.977387	32.252328	1864.500000	1118.500000
4.219132	32.470633	1824.500000	1118.500000
3.533529	32.663197	1784.500000	1118.500000
2.907065	32.835164	1744.500000	1118.500000
2.329449	32.990365	1704.500000	1118.500000
1.792649	33.131722	1664.500000	1118.500000
1.290264	33.261515	1624.500000	1118.500000
0.817105	33.381554	1584.500000	1118.500000
0.368892	33.493300	1544.500000	1118.500000
-0.057953	33.597947	1504.500000	1118.500000
-0.466462	33.696484	1464.500000	1118.500000
-0.859237	33.789742	1424.500000	1118.500000
-1.238540	33.878425	1384.500000	1118.500000
-1.606359	33.963133	1344.500000	1118.500000
-1.964464	34.044389	1304.500000	1118.500000
-2.314451	34.122645	1264.500000	1118.500000
-2.657773	34.198304	1224.500000	1118.500000
-2.995775	34.271720	1184.500000	1118.500000
-3.329716	34.343214	1144.500000	1118.500000
-3.660793	34.413077	1104.500000	1118.500000
-3.990155	34.481575	1064.500000	1118.500000
-4.318928	34.548954	1024.500000	1118.500000
-4.648228	34.615446	984.500000	1118.500000
-4.979177	34.681269	944.500000	1118.500000
-5.312923	34.746634	904.500000	1118.500000
-5.650652	34.811745	864.500000	1118.500000
-5.993614	34.876800	824.500000	1118.500000
-6.343137	34.942001	784.500000	1118.500000
-6.700658	35.007548	744.500000	1118.500000
-7.067746	35.073646	704.500000	1118.500000
-7.446136	35.140505	664.500000	1118.500000
-7.837773	35.208348	624.500000	1118.500000
-8.244861	35.277406	584.500000	1118.500000
-8.669925	35.347929	544.500000	1118.500000
-9.115894	35.420184	504.500000	1118.500000
-9.586203	35.494461	464.500000	1118.500000
-10.084936	35.571079	424.500000	1118.500000
-10.617010	35.650387	384.500000	1118.500000
-11.188430	35.732772	344.500000	1118.500000
-11.806651	35.818664	304.500000	1118.500000
-12.481092	35.908537	264.500000	1118.500000
-13.223913	36.002913	224.500000	1118.500000
-14.051193	36.102354	184.500000	1118.500000
-14.984853	36.207438	144.500000	1118.500000
-16.055910	36.318696	104.500000	1118.500000
-17.310443	36.436445	64.500000	1118.500000
-18.821571	36.560361	24.500000	1118.500000
9.149471	30.703995	2024.500000	1141.500000
7.817910	31.139079	1984.500000	1141.500000
6.699918	31.490772	1944.500000	1141.500000
5.736094	31.784069	1904.500000	1141.500000
4.888681	32.034418	1864.500000	1141.500000
4.132052	32.252031	1824.500000	1141.500000
3.447953	32.444004	1784.500000	1141.500000
2.822891	32.615461	1744.500000	1141.500000
2.246589	32.770214	1704.500000	1141.500000
1.711029	32.911177	1664.500000	1141.500000
1.209822	33.040619	1624.500000	1141.500000
0.737786	33.160344	1584.500000	1141.500000
0.290649	33.271806	1544.500000	1141.500000
-0.135159	33.376195	1504.500000	1141.500000
-0.542666	33.474498	1464.500000	1141.500000
-0.934469	33.567542	1424.500000	1141.500000
-1.312825	33.656028	1384.500000	1141.500000
-1.679719	33.740555	1344.500000	1141.500000
-2.036915	33.821643	1304.500000	1141.500000
-2.386007	33.899745	1264.500000	1141.500000
-2.728445	33.975259	1224.500000	1141.500000
-3.065571	34.048542	1184.500000	1141.500000
-3.398641	34.119912	1144.500000	1141.500000
-3.728848	34.189660	1104.500000	1141.500000
-4.057340	34.258050	1064.500000	1141.500000
-4.385239	34.325330	1024.500000	1141.500000
-4.713658	34.391729	984.500000	1141.500000
-5.043718	34.457467	944.500000	1141.500000
-5.376561	34.522754	904.500000	1141.500000
-5.713372	34.587793	864.500000	1141.500000
-6.055395	34.652785	824.500000	1141.500000
-6.403958	34.717929	784.500000	1141.500000
-6.760491	34.783426	744.500000	1141.500000
-7.126558	34.849481	704.500000	1141.500000
-7.503891	34.916308	664.500000	1141.500000
-7.894429	34.984126	624.500000	1141.500000
-8.300368	35.053171	584.500000	1141.500000
-8.724225	35.123692	544.500000	1141.500000
-9.168921	35.195958	504.500000	1141.500000
-9.637881	35.270263	464.500000	1141.500000
-10.135175	35.346926	424.500000	1141.500000
-10.665706	35.426301	384.500000	1141.500000
-11.235459	35.508780	344.500000	1141.500000
-11.851866	35.594799	304.500000	1141.500000
-12.524318	35.684841	264.500000	1141.500000
-13.264935	35.779440	224.500000	1141.500000
-14.089746	35.879173	184.500000	1141.500000
-15.020603	35.984644	144.500000	1141.500000
-16.088427	36.096420	104.500000	1141.500000
-17.339152	36.214875	64.500000	1141.500000
-18.845669	36.339785	24.500000	1141.500000
9.052921	30.490624	2024.500000	1164.500000
7.723829	30.924126	1984.500000	1164.500000
6.608005	31.274589	1944.500000	1164.500000
5.646120	31.566896	1904.500000	1164.500000
4.800466	31.816428	1864.500000	1164.500000
4.045448	32.033355	1824.500000	1164.500000
3.362839	32.224742	1784.500000	1164.500000
2.739164	32.395691	1744.500000	1164.500000
2.164164	32.550001	1704.500000	1164.500000
1.629832	32.690573	1664.500000	1164.500000
1.129791	32.819667	1624.500000	1164.500000
0.658866	32.939079	1584.500000	1164.500000
0.212795	33.050260	1544.500000	1164.500000
-0.211988	33.154394	1504.500000	1164.500000
-0.618503	33.252466	1464.500000	1164.500000
-1.009344	33.345297	1424.500000	1164.500000
-1.386763	33.433588	1384.500000	1164.500000
-1.752739	33.517936	1344.500000	1164.500000
-2.109037	33.598858	1304.500000	1164.500000
-2.457243	33.676806	1264.500000	1164.500000
-2.798807	33.752178	1224.500000	1164.500000
-3.135066	33.825329	1184.500000	1164.500000
-3.467273	33.896576	1144.500000	1164.500000
-3.796619	33.966209	1104.500000	1164.500000
-4.124250	34.034494	1064.500000	1164.500000
-4.451284	34.101675	1024.500000	1164.500000
-4.778833	34.167983	984.500000	1164.500000
-5.108011	34.233638	944.500000	1164.500000
-5.439961	34.298847	904.500000	1164.500000
-5.775863	34.363816	864.500000	1164.500000
-6.116959	34.428745	824.500000	1164.500000
-6.464571	34.493833	784.500000	1164.500000
-6.820127	34.559281	744.500000	1164.500000
-7.185185	34.625296	704.500000	1164.500000
-7.561472	34.692091	664.500000	1164.500000
-7.950922	34.759886	624.500000	1164.500000
-8.355723	34.828918	584.500000	1164.500000
-8.778387	34.899438	544.500000	1164.500000
-9.221824	34.971717	504.500000	1164.500000
-9.689449	35.046049	464.500000	1164.500000
-10.185320	35.122758	424.500000	1164.500000
-10.714323	35.202202	384.500000	1164.500000
-11.282428	35.284776	344.500000	1164.500000
-11.897041	35.370923	304.500000	1164.500000
-12.567525	35.461134	264.500000	1164.500000
-13.305961	35.555955	224.500000	1164.500000
-14.128330	35.655981	184.500000	1164.500000
-15.056414	35.761839	144.500000	1164.500000
-16.121039	35.874132	104.500000	1164.500000
-17.367996	35.993292	64.500000	1164.500000
-18.869950	36.119194	24.500000	1164.500000
8.956934	30.277146	2024.500000	1187.500000
7.630287	30.709076	1984.500000	1187.500000
6.516613	31.058316	1944.500000	1187.500000
5.556650	31.349640	1904.500000	1187.500000
4.712737	31.598361	1864.500000	1187.500000
3.959315	31.814606	1824.500000	1187.500000
3.278180	32.005411	1784.500000	1187.500000
2.655879	32.175857	1744.500000	1187.500000
2.082168	32.329727	1704.500000	1187.500000
1.549053	32.469910	1664.500000	1187.500000
1.050165	32.598658	1624.500000	1187.500000
0.580342	32.717762	1584.500000	1187.500000
0.135325	32.828663	1544.500000	1187.500000
-0.288442	32.932545	1504.500000	1187.500000
-0.693976	33.030386	1464.500000	1187.500000
-1.083865	33.123008	1424.500000	1187.500000
-1.460356	33.211105	1384.500000	1187.500000
-1.825426	33.295275	1344.500000	1187.500000
-2.180833	33.376033	1304.500000	1187.500000
-2.528163	33.453830	1264.500000	1187.500000
-2.868861	33.529061	1224.500000	1187.500000
-3.204262	33.602081	1184.500000	1187.500000
-3.535616	33.673207	1144.500000	1187.500000
-3.864111	33.742727	1104.500000	1187.500000
-4.190889	33.810907	1064.500000	1187.500000
-4.517068	33.877991	1024.500000	1187.500000
-4.843754	33.944209	984.500000	1187.500000
-5.172062	34.009781	944.500000	1187.500000
-5.503128	34.074915	904.500000	1187.500000
-5.838131	34.139815	864.500000	1187.500000
-6.178309	34.204681	824.500000	1187.500000
-6.524980	34.269714	784.500000	1187.500000
-6.879568	34.335115	744.500000	1187.500000
-7.243628	34.401091	704.500000	1187.500000
-7.618880	34.467854	664.500000	1187.500000
-8.007253	34.535627	624.500000	1187.500000
-8.410930	34.604648	584.500000	1187.500000
-8.832413	34.675168	544.500000	1187.500000
-9.274604	34.747459	504.500000	1187.500000
-9.740909	34.821820	464.500000	1187.500000
-10.235372	34.898577	424.500000	1187.500000
-10.762865	34.978089	384.500000	1187.500000
-11.329338	35.060759	344.500000	1187.500000
-11.942176	35.147034	304.500000	1187.500000
-12.610713	35.237415	264.500000	1187.500000
-13.346991	35.332460	224.500000	1187.500000
-14.166944	35.432778	184.500000	1187.500000
-15.092285	35.539023	144.500000	1187.500000
-16.153745	35.651831	104.500000	1187.500000
-17.396974	35.771696	64.500000	1187.500000
-18.894413	35.898587	24.500000	1187.500000
8.861503	30.063563	2024.500000	1210.500000
7.537281	30.493930	1984.500000	1210.500000
6.425736	30.841955	1944.500000	1210.500000
5.467677	31.132301	1904.500000	1210.500000
4.625489	31.380217	1864.500000	1210.500000
3.873647	31.595785	1824.500000	1210.500000
3.193973	31.786012	1784.500000	1210.500000
2.573033	31.955958	1744.500000	1210.500000
2.000597	32.109392	1704.500000	1210.500000
1.468686	32.249189	1664.500000	1210.500000
0.970941	32.377595	1624.500000	1210.500000
0.502207	32.496391	1584.500000	1210.500000
0.058235	32.607017	1544.500000	1210.500000
-0.364528	32.710648	1504.500000	1210.500000
-0.769091	32.808261	1464.500000	1210.500000
-1.158037	32.900674	1424.500000	1210.500000
-1.533609	32.988580	1384.500000	1210.500000
-1.897781	33.072574	1344.500000	1210.500000
-2.252308	33.153170	1304.500000	1210.500000
-2.598771	33.230816	1264.500000	1210.500000
-2.938612	33.305908	1224.500000	1210.500000
-3.273164	33.378798	1184.500000	1210.500000
-3.603674	33.449804	1144.500000	1210.500000
-3.931326	33.519213	1104.500000	1210.500000
-4.257261	33.587289	1064.500000	1210.500000
-4.582593	33.654277	1024.500000	1210.500000
-4.908426	33.720407	984.500000	1210.500000
-5.235872	33.785897	944.500000	1210.500000
-5.566063	33.850956	904.500000	1210.500000
-5.900177	33.915788	864.500000	1210.500000
-6.239447	33.980594	824.500000	1210.500000
-6.585187	34.045573	784.500000	1210.500000
-6.938818	34.110928	744.500000	1210.500000
-7.301890	34.176865	704.500000	1210.500000
-7.676119	34.243597	664.500000	1210.500000
-8.063427	34.311350	624.500000	1210.500000
-8.465991	34.380360	584.500000	1210.500000
-8.886306	34.450881	544.500000	1210.500000
-9.327265	34.523187	504.500000	1210.500000
-9.792262	34.597577	464.500000	1210.500000
-10.285333	34.674381	424.500000	1210.500000
-10.811331	34.753963	384.500000	1210.500000
-11.376191	34.836729	344.500000	1210.500000
-11.987273	34.923134	304.500000	1210.500000
-12.653883	35.013685	264.500000	1210.500000
-13.388028	35.108953	224.500000	1210.500000
-14.205589	35.209565	184.500000	1210.500000
-15.128217	35.316195	144.500000	1210.500000
-16.186545	35.429519	104.500000	1210.500000
-17.426085	35.550086	64.500000	1210.500000
-18.919056	35.677964	24.500000	1210.500000
8.766623	29.849874	2024.500000	1233.500000
7.444805	30.278688	1984.500000	1233.500000
6.335370	30.625505	1944.500000	1233.500000
5.379196	30.914881	1904.500000	1233.500000
4.538717	31.161997	1864.500000	1233.500000
3.788439	31.376893	1824.500000	1233.500000
3.110212	31.566546	1784.500000	1233.500000
2.490619	31.735996	1744.500000	1233.500000
1.919447	31.888996	1704.500000	1233.500000
1.388727	32.028411	1664.500000	1233.500000
0.892113	32.156477	1624.500000	1233.500000
0.424458	32.274969	1584.500000	1233.500000
-0.018481	32.385320	1544.500000	1233.500000
-0.440249	32.488703	1504.500000	1233.500000
-0.843850	32.586090	1464.500000	1233.500000
-1.231863	32.678297	1424.500000	1233.500000
-1.606527	32.766013	1384.500000	1233.500000
-1.969811	32.849833	1344.500000	1233.500000
-2.323466	32.930268	1304.500000	1233.500000
-2.669071	33.007765	1264.500000	1233.500000
-3.008064	33.082719	1224.500000	1233.500000
-3.341775	33.155482	1184.500000	1233.500000
-3.671450	33.226369	1144.500000	1233.500000
-3.998269	33.295668	1104.500000	1233.500000
-4.323369	33.363641	1064.500000	1233.500000
-4.647864	33.430535	1024.500000	1233.500000
-4.972853	33.496578	984.500000	1233.500000
-5.299445	33.561987	944.500000	1233.500000
-5.628772	33.626972	904.500000	1233.500000
-5.962005	33.691738	864.500000	1233.500000
-6.300376	33.756483	824.500000	1233.500000
